ply
format ascii 1.0
element vertex 1275
property float x
property float y
property float z
property uchar red
property uchar green
property uchar blue
end_header
-0.126273 0.062819 -0.269469 153 76 0
0.041688 0.046540 -0.192063 153 76 0
0.000143 0.520198 0.489952 0 255 0
-0.049088 -0.696070 -0.313080 153 76 0
-0.125835 -0.531944 -0.271740 153 76 0
-0.076249 0.058380 0.438459 0 127 127
-0.146539 -0.468422 -0.284522 153 76 0
-0.041588 -0.062456 0.069245 153 76 0
-0.207459 0.672158 -0.127173 0 255 0
-0.167168 -0.768086 -0.273987 76 0 153
-0.055682 -0.583035 0.065551 153 76 0
-0.178463 -0.431118 -0.177440 153 76 0
-0.091840 0.115241 -0.140646 153 76 0
-0.013081 -0.805997 0.076183 153 76 0
0.037313 0.015736 -0.282780 153 76 0
-0.084049 0.026159 0.874044 153 0 76
-0.097858 0.413713 -0.192983 153 76 0
-0.135444 0.376388 -0.197240 153 76 0
-0.115085 0.409025 -0.145551 153 76 0
0.087948 -0.430397 -0.296865 153 76 0
0.183688 0.044588 -0.101674 153 76 0
-0.017000 0.014827 -0.120021 153 76 0
-0.129928 0.258764 -0.129477 153 76 0
0.081561 0.189791 0.787867 0 127 127
-0.176342 -0.036003 -0.024035 153 76 0
-0.154197 -0.788924 -0.033653 153 76 0
-0.020449 -0.777399 -0.320656 153 76 0
0.128341 0.253345 -0.155878 153 76 0
0.204201 -0.432797 -0.177159 153 76 0
-0.010949 0.148706 -0.191552 153 76 0
0.117566 0.171634 -0.193809 153 76 0
-0.098873 0.176467 0.019505 0 127 127
0.040879 0.100476 -0.260473 153 76 0
-0.169845 0.037663 -0.250723 153 76 0
0.187967 0.446259 -0.172580 0 255 0
0.030994 0.407647 0.064157 0 255 0
0.108608 -0.730761 -0.272237 153 76 0
0.142896 -0.659968 -0.017321 153 76 0
0.035055 0.053581 0.574922 0 127 127
-0.070336 -0.676635 0.061810 153 76 0
0.068283 0.112332 -0.077103 153 76 0
0.158504 -0.661756 -0.269903 153 76 0
0.100546 0.083082 0.586953 0 127 127
-0.005546 0.597001 0.587273 0 255 0
0.124054 0.178213 0.034386 153 76 0
0.018300 0.510864 -0.060801 0 255 0
0.167652 0.006610 -0.256154 153 76 0
-0.079964 0.201963 0.063246 0 127 127
0.037571 0.559015 0.567859 0 255 0
-0.116364 0.249165 -0.079382 153 76 0
-0.006981 0.263262 0.257004 0 127 127
-0.203750 0.309248 -0.094978 153 76 0
-0.047537 0.015736 -0.167127 153 76 0
-0.074318 0.075572 -0.204519 153 76 0
0.065333 -0.378609 0.063848 153 76 0
0.117945 0.134099 0.530673 0 127 127
0.071797 -0.204415 -0.331006 153 76 0
0.106595 0.237345 -0.060058 153 76 0
0.071310 0.172888 0.892419 0 127 127
0.194797 -0.380460 -0.061292 153 76 0
0.043533 -0.482003 0.067856 153 76 0
-0.032667 0.348394 -0.246112 153 76 0
-0.193049 -0.767111 -0.060423 76 0 153
0.181294 0.561624 -0.196418 0 255 0
0.141433 0.579475 -0.009638 0 255 0
0.111762 0.519642 0.018563 0 255 0
0.056888 0.248595 0.521180 0 127 127
-0.104246 -0.281896 0.045293 153 76 0
0.093456 0.056378 -0.151048 153 76 0
-0.097424 -0.602643 0.020436 153 76 0
0.108752 0.013127 0.929928 76 153 0
0.082463 -0.731559 0.030298 153 76 0
-0.124812 -0.297372 -0.300466 153 76 0
-0.059939 0.046702 0.690272 0 127 127
-0.081017 0.201545 0.386326 0 127 127
-0.102979 0.015736 -0.135361 153 76 0
-0.180669 -0.802612 0.023045 76 0 153
-0.002087 0.591220 0.403371 0 255 0
-0.046311 0.232790 0.585991 0 127 127
0.063989 -0.060617 -0.102990 153 76 0
-0.163215 -0.124641 -0.261076 153 76 0
0.094766 0.654925 -0.201218 0 255 0
-0.022838 0.416979 -0.275031 153 76 0
-0.194965 0.364978 -0.062442 153 76 0
0.041688 0.107558 -0.216615 153 76 0
0.201630 0.360549 -0.096129 153 76 0
-0.056116 0.673587 -0.178154 0 255 0
0.144699 0.217679 -0.018396 153 76 0
-0.003767 0.287846 -0.005690 153 76 0
-0.022280 0.465026 0.053385 0 255 0
-0.035666 0.577178 -0.093460 0 255 0
-0.112292 0.112130 0.154571 0 127 127
-0.143282 0.277486 -0.288022 153 76 0
-0.166571 0.563127 -0.013472 0 255 0
0.098470 0.162636 0.206075 0 127 127
-0.180267 -0.762746 -0.170774 153 76 0
0.044063 0.015736 0.016501 153 76 0
-0.111924 0.388985 0.040208 153 76 0
0.173058 0.064970 -0.247943 153 76 0
-0.151490 0.494297 0.008706 0 255 0
-0.195611 -0.802612 -0.034432 76 0 153
-0.096981 0.388985 -0.287893 153 76 0
-0.029292 -0.236207 -0.041846 153 76 0
0.107238 -0.264903 -0.313412 153 76 0
0.033026 0.413713 -0.237189 153 76 0
-0.032079 0.640928 -0.121580 0 255 0
0.221448 -0.773526 -0.005869 76 0 153
-0.251246 -0.820331 -0.172732 76 0 153
0.035353 0.164541 0.043925 0 127 127
0.076453 -0.047978 -0.329705 153 76 0
-0.175528 -0.267041 -0.188892 153 76 0
0.076609 0.673587 -0.080697 0 255 0
-0.097414 0.152211 0.487429 0 127 127
-0.032696 0.593914 -0.177675 0 255 0
0.129551 0.034976 0.029828 153 76 0
-0.020005 -0.021320 0.923904 153 0 76
-0.075235 0.045337 0.837456 153 0 76
-0.017340 0.102201 -0.074587 0 127 127
0.059759 0.170186 -0.018918 0 127 127
0.187995 0.596655 -0.158656 0 255 0
0.081661 -0.221380 0.057791 153 76 0
-0.075827 -0.002437 0.059080 153 76 0
0.082188 0.349538 -0.210892 153 76 0
0.159255 -0.802612 -0.293480 76 0 153
0.182513 -0.730761 -0.154540 153 76 0
-0.025791 0.575669 0.261084 0 255 0
-0.091282 0.109190 0.573348 0 127 127
0.208838 0.409192 -0.122421 0 255 0
-0.181851 -0.291235 -0.152996 153 76 0
-0.100754 -0.196918 0.047398 153 76 0
0.090374 0.580997 0.030784 0 255 0
-0.041678 0.233659 0.746170 0 127 127
-0.162321 0.232662 -0.220904 153 76 0
0.019680 0.134307 0.938732 0 127 127
0.161461 0.343388 -0.264025 153 76 0
0.176900 -0.783289 -0.153180 153 76 0
0.089604 -0.789197 -0.204243 153 76 0
-0.053788 -0.202068 -0.335720 153 76 0
-0.059475 0.267342 0.065001 153 76 0
0.045101 -0.545654 0.042112 153 76 0
0.060444 0.183427 -0.334257 153 76 0
0.055550 0.202456 0.839890 0 127 127
0.022483 0.032582 0.716596 0 127 127
0.086491 0.223574 -0.326892 153 76 0
-0.025112 0.577732 0.304630 0 255 0
-0.105222 -0.644861 -0.313758 153 76 0
-0.136704 0.478434 -0.162104 153 76 0
-0.019726 0.020354 0.072014 153 76 0
0.014586 0.476218 -0.119815 0 255 0
-0.001725 0.063975 -0.345253 153 76 0
0.122786 0.456054 -0.244670 153 76 0
-0.042581 0.388985 -0.306372 153 76 0
-0.017970 0.141155 -0.113371 153 76 0
0.061268 0.003165 -0.163583 153 76 0
-0.115593 0.151425 0.204605 0 127 127
0.059758 0.125623 -0.334451 153 76 0
-0.126588 0.095705 -0.159340 153 76 0
-0.246900 -0.809617 -0.085765 76 0 153
-0.185814 -0.238093 -0.041308 153 76 0
-0.200055 0.648488 -0.092978 0 255 0
0.111223 0.188239 0.636782 0 127 127
-0.204661 -0.005130 -0.098407 153 76 0
0.119860 0.166516 -0.080729 153 76 0
-0.201138 -0.349867 -0.183722 153 76 0
-0.111694 0.180138 0.580898 0 127 127
0.183242 -0.211893 -0.032272 153 76 0
0.020540 -0.297158 -0.344378 153 76 0
0.070766 0.239604 0.677994 0 127 127
0.030910 0.051594 0.238891 0 127 127
0.053118 0.511484 0.064695 0 255 0
-0.153798 0.272345 -0.209321 153 76 0
-0.069262 0.413713 -0.232517 153 76 0
-0.029273 0.143125 0.929993 0 127 127
-0.253284 -0.781407 -0.126712 76 0 153
-0.098695 0.140336 0.320806 0 127 127
0.118694 0.016034 0.889746 76 153 0
-0.034166 -0.236207 -0.103437 153 76 0
0.090182 0.068431 0.748787 0 127 127
-0.065140 0.257543 -0.022066 153 76 0
-0.018298 -0.063381 -0.090338 153 76 0
0.164239 0.673587 -0.262428 0 255 0
-0.035952 -0.173977 0.069726 153 76 0
0.173270 -0.471854 -0.072301 153 76 0
-0.143859 0.031495 0.015806 153 76 0
0.204979 0.482951 -0.181461 0 255 0
-0.023822 0.575205 -0.323917 0 255 0
0.155900 0.654925 -0.206098 0 255 0
-0.041289 0.528888 -0.100881 0 255 0
-0.125838 0.308270 -0.072196 153 76 0
0.125313 0.108105 -0.103310 153 76 0
-0.078288 0.489951 0.037160 0 255 0
-0.169841 0.015736 -0.110451 153 76 0
0.150761 0.015736 -0.097205 153 76 0
0.096380 0.076673 0.059197 0 127 127
0.068937 0.602994 -0.064913 0 255 0
0.010300 0.571340 0.019354 0 255 0
-0.033157 0.332144 0.007078 153 76 0
-0.202168 0.265009 -0.170087 153 76 0
0.094487 0.113621 -0.141536 153 76 0
-0.035505 0.548600 0.465738 0 255 0
0.009699 0.274149 -0.344846 153 76 0
-0.063360 -0.324019 -0.332987 153 76 0
-0.130087 0.179829 -0.131016 153 76 0
-0.127895 -0.802612 -0.310391 153 76 0
-0.094650 0.168200 0.665877 0 127 127
0.088016 -0.802612 0.066735 76 0 153
-0.068850 -0.813153 -0.338303 153 76 0
0.157033 -0.222359 0.001180 153 76 0
0.017689 -0.205054 -0.112679 153 76 0
0.083181 0.328330 -0.247733 153 76 0
0.100227 0.144941 0.343216 0 127 127
-0.137701 0.388985 -0.022559 153 76 0
-0.078544 0.203338 -0.302316 153 76 0
0.145639 -0.824074 -0.220173 76 0 153
0.127640 0.133861 -0.156844 153 76 0
0.202136 0.651749 -0.182987 0 255 0
0.094988 0.074709 0.119899 0 127 127
-0.173335 0.391873 -0.202871 153 76 0
0.151501 0.633985 0.009874 0 255 0
0.013347 0.442903 -0.306797 153 76 0
-0.067189 0.140543 -0.308103 153 76 0
0.038593 -0.322019 0.069080 153 76 0
-0.096854 -0.048037 -0.178498 153 76 0
-0.087251 -0.191332 -0.200775 153 76 0
-0.169378 -0.488904 -0.210887 153 76 0
0.167078 0.255218 -0.057405 153 76 0
0.007617 0.079712 -0.135925 153 76 0
0.110563 0.190025 0.738683 0 127 127
-0.060289 0.046663 0.561995 0 127 127
-0.050746 -0.768086 -0.346473 153 76 0
-0.184593 0.412897 -0.104215 153 76 0
0.094691 -0.236207 -0.211542 153 76 0
-0.198209 -0.485355 -0.072441 153 76 0
-0.193697 0.095908 -0.213621 153 76 0
0.014025 -0.748138 0.072299 153 76 0
0.033788 0.240625 -0.262301 153 76 0
0.208978 0.162021 -0.117923 153 76 0
0.026653 0.465166 -0.191106 0 255 0
0.065457 0.000123 0.935786 153 0 76
-0.039982 0.422400 0.070393 0 255 0
-0.010418 0.205955 0.898215 0 127 127
0.207526 -0.738234 -0.122422 153 76 0
0.005163 0.135014 -0.345127 153 76 0
-0.001826 0.512570 0.261049 0 255 0
-0.177296 0.188352 -0.185274 153 76 0
-0.118370 -0.726976 0.036444 153 76 0
-0.112048 -0.236207 -0.002351 153 76 0
-0.062494 -0.802612 0.074064 76 0 153
0.050936 0.093860 0.067962 0 127 127
-0.160916 -0.605276 -0.264552 153 76 0
0.156468 0.447756 -0.204891 153 76 0
0.170996 -0.620101 -0.016709 153 76 0
0.255671 -0.798463 -0.133821 76 0 153
-0.173355 0.276555 -0.244629 153 76 0
0.030740 -0.493972 -0.340577 153 76 0
-0.013182 -0.268773 -0.344704 153 76 0
0.190314 0.375704 -0.057210 153 76 0
-0.178371 -0.768086 0.047423 76 0 153
0.012696 0.068858 -0.006825 153 76 0
0.185108 -0.094879 -0.230744 153 76 0
-0.015050 0.420711 -0.057164 153 76 0
-0.013511 -0.485458 0.048125 153 76 0
0.052135 0.673587 -0.048433 0 255 0
-0.087157 0.074359 -0.297103 153 76 0
0.085006 -0.056305 -0.203206 153 76 0
0.161949 0.189061 -0.041634 153 76 0
-0.070522 0.080430 0.082786 0 127 127
0.052662 -0.246568 -0.336432 153 76 0
0.116356 -0.361794 -0.307195 153 76 0
-0.035926 0.487151 -0.177675 0 255 0
-0.069283 0.540843 -0.173270 0 255 0
0.113565 0.159668 0.810061 0 127 127
0.028419 0.530295 0.409364 0 255 0
-0.208580 0.512181 -0.140840 0 255 0
0.090669 0.188909 0.398876 0 127 127
0.034353 0.078485 -0.064056 153 76 0
-0.095005 0.163024 0.273897 0 127 127
-0.010736 0.015736 -0.309554 153 76 0
0.176605 -0.501180 -0.022498 153 76 0
-0.187305 0.475594 -0.119434 0 255 0
0.208487 -0.628190 -0.132343 153 76 0
-0.065070 0.059675 -0.120368 153 76 0
-0.100390 -0.460921 -0.289541 153 76 0
0.165046 -0.535975 -0.260711 153 76 0
-0.150415 0.570683 -0.280766 0 255 0
-0.070919 0.033686 -0.073356 153 76 0
0.183012 -0.567505 -0.164035 153 76 0
0.051285 0.373024 0.066402 153 76 0
0.037920 -0.033699 0.820029 153 0 76
0.149071 -0.241130 -0.241561 153 76 0
-0.142525 0.307149 -0.154273 153 76 0
0.175833 -0.154682 -0.244676 153 76 0
0.073980 0.498522 -0.327532 0 255 0
0.027900 0.417569 -0.055013 153 76 0
-0.063210 -0.446190 0.064197 153 76 0
0.002529 0.044782 0.962933 153 0 76
0.014684 -0.127590 -0.108671 153 76 0
0.028701 0.348394 -0.024263 153 76 0
0.007671 -0.653078 -0.321686 153 76 0
-0.003718 -0.392416 0.050217 153 76 0
-0.153115 0.425759 -0.081442 153 76 0
-0.197388 0.157117 -0.200005 153 76 0
0.023901 -0.259376 0.071435 153 76 0
0.173215 0.078320 -0.017931 153 76 0
-0.101944 0.202357 0.548335 0 127 127
0.026439 0.673587 -0.264899 0 255 0
0.162348 0.003151 -0.003526 153 76 0
0.203915 0.057924 -0.172234 153 76 0
0.076019 0.082071 0.507350 0 127 127
-0.000624 0.312773 0.074340 153 76 0
0.119491 -0.763495 0.007125 153 76 0
0.070686 0.526126 -0.172913 0 255 0
-0.147114 0.125857 -0.246226 153 76 0
0.024848 -0.236207 0.003048 153 76 0
-0.118433 -0.241747 -0.304855 153 76 0
0.115291 -0.442799 0.008679 153 76 0
0.060421 -0.796719 -0.309342 153 76 0
0.036501 0.179478 0.915876 0 127 127
-0.184630 -0.651190 -0.134624 153 76 0
-0.116364 -0.025387 0.882071 76 153 0
0.095988 0.025433 0.811708 0 127 127
-0.170569 0.388985 -0.157130 153 76 0
-0.028876 0.673587 -0.254281 0 255 0
0.071206 0.215914 0.589479 0 127 127
0.016925 0.028977 0.807229 153 0 76
0.106558 -0.026686 0.839622 76 153 0
-0.007351 -0.427079 -0.321664 153 76 0
0.064848 0.427226 0.018509 153 76 0
-0.047802 -0.236207 -0.259160 153 76 0
-0.175689 -0.617723 -0.189381 153 76 0
0.131350 0.413713 -0.124075 153 76 0
0.196132 -0.028679 -0.069907 153 76 0
-0.133795 -0.718271 -0.294163 153 76 0
0.022750 0.050491 0.357792 0 127 127
0.114203 0.172577 -0.281340 153 76 0
-0.186687 0.540307 -0.115371 0 255 0
0.085017 0.198017 0.328647 0 127 127
-0.021659 -0.309447 0.046333 153 76 0
-0.058140 0.556384 0.045715 0 255 0
-0.074576 -0.156402 -0.329826 153 76 0
-0.081321 -0.048007 -0.327925 153 76 0
-0.204956 -0.426676 -0.097480 153 76 0
-0.029625 0.272345 -0.300266 153 76 0
0.022751 0.673587 -0.147906 0 255 0
-0.020132 0.530183 0.584322 0 255 0
0.148931 -0.768086 0.041975 76 0 153
-0.205178 -0.205754 -0.162023 153 76 0
-0.184872 -0.492848 -0.142327 153 76 0
0.003766 0.635660 -0.060801 0 255 0
0.104741 0.644409 -0.290808 0 255 0
0.062124 0.223564 0.452314 0 127 127
0.126458 0.048312 -0.300401 153 76 0
-0.043978 0.125005 -0.258592 153 76 0
0.015353 -0.768086 -0.387029 76 0 153
0.105423 0.100896 0.016253 153 76 0
0.086900 0.194304 0.501264 0 127 127
0.058722 0.046561 -0.334743 153 76 0
-0.061438 0.077312 -0.167177 153 76 0
-0.058699 0.015736 -0.030519 153 76 0
0.098037 -0.017104 0.049999 153 76 0
-0.174169 0.347469 -0.243156 153 76 0
0.037304 0.030828 0.754082 0 127 127
-0.002194 0.509804 0.179941 0 255 0
0.152590 0.600003 -0.247525 0 255 0
0.073220 -0.270544 0.060878 153 76 0
0.077943 -0.768086 0.087795 76 0 153
0.177988 -0.468967 -0.242626 153 76 0
-0.089749 0.182867 0.203260 0 127 127
-0.102889 0.015736 -0.003897 153 76 0
-0.062578 0.637250 -0.061327 0 255 0
-0.115642 0.097026 0.860734 0 127 127
-0.015678 -0.564403 0.071794 153 76 0
0.157015 0.428923 -0.087138 153 76 0
0.006827 0.263782 0.575042 0 127 127
0.165288 0.408278 -0.053962 153 76 0
0.014864 0.244324 0.293973 0 127 127
-0.160982 -0.538130 -0.223582 153 76 0
0.096736 -0.161641 -0.172957 153 76 0
-0.021994 0.216652 0.046260 0 127 127
-0.057875 -0.050151 -0.165543 153 76 0
0.095272 0.106439 0.788646 0 127 127
0.101534 -0.604781 0.046410 153 76 0
-0.096106 0.015736 -0.271583 153 76 0
0.068244 -0.705337 0.063255 153 76 0
-0.098793 0.082467 0.510534 0 127 127
0.102666 0.201824 0.239309 0 127 127
0.133722 -0.295921 0.026111 153 76 0
-0.004291 0.205040 -0.004847 0 127 127
-0.199487 0.103185 -0.073682 153 76 0
0.153401 0.673587 -0.038330 0 255 0
0.056190 0.208004 -0.253853 153 76 0
-0.131884 -0.013325 0.026499 153 76 0
0.179338 -0.541501 -0.091030 153 76 0
-0.047855 0.232350 0.421979 0 127 127
-0.061416 0.388985 0.002673 153 76 0
-0.118175 0.137892 -0.189110 153 76 0
-0.157347 0.452923 -0.190957 153 76 0
-0.054921 0.529887 -0.336909 0 255 0
-0.190440 0.585487 -0.135261 0 255 0
-0.037328 0.061361 -0.230824 153 76 0
0.137077 -0.824074 -0.154185 153 76 0
-0.101891 0.015736 -0.220573 153 76 0
-0.007837 0.507953 0.079862 0 255 0
-0.146272 -0.488501 -0.022415 153 76 0
0.000971 0.508190 -0.325882 0 255 0
-0.092016 -0.018074 0.816981 76 153 0
-0.084876 0.095240 0.369435 0 127 127
0.065019 -0.419367 0.064017 153 76 0
-0.110442 0.060844 -0.205361 153 76 0
0.032050 0.528562 0.202879 0 255 0
0.066858 0.113990 0.921955 0 127 127
-0.154134 -0.156786 0.003225 153 76 0
-0.183798 0.242472 -0.142552 153 76 0
0.095443 0.048872 0.943236 0 127 127
0.080040 0.388985 0.020855 153 76 0
-0.048585 0.038656 0.730868 0 127 127
-0.027636 -0.040688 0.834844 153 0 76
0.133734 0.479625 -0.062881 153 76 0
-0.145918 -0.271275 -0.244289 153 76 0
-0.114410 0.042176 0.855723 0 127 127
0.046550 0.446210 0.066823 0 255 0
0.160050 0.225610 -0.266558 153 76 0
0.207791 0.486104 -0.116201 0 255 0
-0.070611 0.114234 -0.195523 153 76 0
0.022850 0.630310 -0.214766 0 255 0
0.013243 0.243970 0.708047 0 127 127
0.100283 -0.612887 -0.291799 153 76 0
0.031933 -0.236207 -0.148804 153 76 0
0.184540 -0.324577 -0.232455 153 76 0
-0.079017 -0.308888 0.058361 153 76 0
0.163342 -0.794272 -0.044644 153 76 0
-0.211492 -0.802612 -0.071521 76 0 153
-0.060219 0.434769 0.018520 153 76 0
-0.123172 0.520712 0.032192 0 255 0
-0.140046 0.395198 -0.263173 153 76 0
-0.008377 0.522904 0.528232 0 255 0
-0.031984 0.065213 0.851021 153 0 76
-0.126847 0.183358 -0.270595 153 76 0
-0.205232 -0.080526 -0.159207 153 76 0
0.070686 0.640999 -0.137138 0 255 0
-0.100912 0.341303 -0.316632 153 76 0
0.040770 -0.006574 0.996786 76 153 0
0.028797 0.052052 0.476153 0 127 127
0.029418 0.148706 -0.106202 153 76 0
-0.054338 0.249868 0.265637 0 127 127
-0.141303 0.170504 0.018104 153 76 0
-0.052172 0.141469 0.067380 0 127 127
0.078151 -0.002865 0.877056 153 0 76
0.096372 0.471988 0.028310 0 255 0
-0.028257 0.015736 0.025430 153 76 0
0.129398 0.573471 0.027408 0 255 0
0.093860 0.413713 -0.045972 153 76 0
0.131565 0.186698 -0.138889 153 76 0
0.060008 -0.457364 -0.311532 153 76 0
0.052974 0.119953 -0.148198 153 76 0
-0.226376 -0.803473 -0.252559 76 0 153
-0.155467 -0.314750 -0.034792 153 76 0
0.045935 -0.824074 0.115808 76 0 153
0.080386 0.087312 0.661282 0 127 127
-0.068260 0.074958 0.631243 0 127 127
-0.020112 -0.692579 0.047168 153 76 0
-0.036623 0.474838 -0.134651 0 255 0
0.092301 0.389805 -0.103773 153 76 0
0.161641 0.530576 -0.235240 0 255 0
0.028699 -0.411102 -0.319805 153 76 0
-0.163967 -0.643699 -0.010527 153 76 0
-0.109171 0.440644 -0.024843 153 76 0
0.136376 0.335636 -0.293665 153 76 0
0.187164 -0.306947 -0.042124 153 76 0
0.009260 -0.030083 0.845518 153 0 76
-0.062291 -0.236207 -0.075872 153 76 0
0.077003 0.582821 -0.330310 0 255 0
0.138225 0.643856 -0.268125 0 255 0
0.185273 0.068537 -0.140301 153 76 0
0.123722 0.423007 -0.017252 153 76 0
0.066219 0.076672 -0.202190 153 76 0
0.184891 -0.295939 -0.118349 153 76 0
-0.181435 -0.592060 -0.098484 153 76 0
-0.205611 -0.757465 -0.115852 153 76 0
0.042925 0.504451 -0.097776 0 255 0
0.061500 0.280135 -0.251380 153 76 0
-0.124351 -0.802612 0.069560 76 0 153
-0.035775 0.253737 -0.340819 153 76 0
-0.194289 0.483765 -0.061645 0 255 0
0.200084 -0.251560 -0.193289 153 76 0
0.009010 -0.236207 -0.039661 153 76 0
0.051625 0.252384 0.285259 0 127 127
-0.169633 -0.766514 -0.210623 153 76 0
0.241996 -0.824074 -0.059054 76 0 153
0.132537 -0.507452 0.027081 153 76 0
-0.186659 -0.631674 -0.043922 153 76 0
0.125734 -0.764530 -0.186507 153 76 0
0.017089 0.278319 0.072507 153 76 0
0.191158 -0.436723 -0.052154 153 76 0
0.118116 0.135189 0.662285 0 127 127
0.012058 0.583803 0.244805 0 255 0
0.070686 0.565973 -0.097316 0 255 0
-0.008391 -0.087190 0.073394 153 76 0
-0.052901 0.645554 -0.313474 0 255 0
-0.108128 0.189337 0.410334 0 127 127
-0.208024 0.082404 -0.139730 153 76 0
0.115542 -0.236207 -0.158365 153 76 0
-0.056636 0.582256 -0.060801 0 255 0
0.174399 0.488457 -0.060854 0 255 0
-0.039373 -0.258727 0.068959 153 76 0
0.042925 0.629141 -0.107273 0 255 0
0.121049 -0.824074 -0.295089 76 0 153
0.013068 0.526089 -0.179307 0 255 0
0.022738 0.244034 -0.006154 153 76 0
-0.055925 0.353494 -0.278556 153 76 0
-0.035608 0.673587 0.067400 0 255 0
0.178609 0.087177 -0.085523 153 76 0
-0.072235 0.274589 -0.330536 153 76 0
0.151686 0.079175 -0.278995 153 76 0
0.162372 -0.701834 -0.007487 153 76 0
0.114872 0.113142 0.859032 0 127 127
-0.045955 0.627677 0.038929 0 255 0
0.151809 0.141940 -0.240932 153 76 0
-0.091538 -0.123800 0.052477 153 76 0
0.093623 0.118774 0.607271 0 127 127
0.004900 0.091959 -0.228462 153 76 0
-0.203621 -0.092343 -0.091648 153 76 0
0.193883 -0.649148 -0.058998 153 76 0
0.100526 0.210060 -0.219474 153 76 0
0.137909 0.654925 -0.128776 0 255 0
0.123246 -0.395496 0.034954 153 76 0
0.099062 0.673587 -0.314559 0 255 0
0.066568 0.053174 0.038284 153 76 0
-0.090528 -0.797067 0.024220 153 76 0
0.100360 0.142077 0.066319 0 127 127
0.033834 0.022178 0.070461 153 76 0
-0.029438 0.035405 0.199144 0 127 127
-0.050581 0.106908 -0.336643 153 76 0
0.189843 0.531768 -0.120081 0 255 0
-0.068299 0.072569 -0.079448 153 76 0
0.151395 -0.687593 -0.242981 153 76 0
0.063386 -0.802612 -0.348284 76 0 153
-0.161746 -0.526946 -0.044046 153 76 0
0.175182 -0.208818 -0.245845 153 76 0
0.203091 -0.103181 -0.180237 153 76 0
-0.136760 -0.364766 -0.010055 153 76 0
-0.118762 -0.165052 0.037118 153 76 0
-0.006696 0.531612 -0.116061 0 255 0
0.149097 -0.153608 -0.282735 153 76 0
0.055854 -0.010498 0.783675 76 153 0
0.053636 -0.690673 -0.314376 153 76 0
-0.154082 -0.347755 -0.273936 153 76 0
-0.026442 0.051538 0.383836 0 127 127
0.204601 0.292741 -0.163549 153 76 0
-0.201652 -0.290299 -0.080434 153 76 0
0.197691 0.191090 -0.204789 153 76 0
0.098451 0.135473 0.262922 0 127 127
-0.026626 0.603971 0.072455 0 255 0
0.189264 -0.708568 -0.047397 153 76 0
-0.118445 -0.323885 0.004826 153 76 0
-0.040296 -0.646306 -0.315720 153 76 0
0.209472 -0.220041 -0.132855 153 76 0
-0.116032 0.152107 0.714080 0 127 127
-0.183794 -0.246833 -0.116284 153 76 0
-0.178620 -0.544606 -0.179115 153 76 0
0.041711 0.644553 0.033444 0 255 0
0.033549 0.569899 0.350404 0 255 0
0.059854 0.225362 0.403505 0 127 127
-0.209463 -0.802612 -0.193561 153 76 0
0.060888 0.068070 0.444353 0 127 127
-0.183615 -0.309419 -0.114539 153 76 0
-0.022325 0.260500 0.469180 0 127 127
-0.063441 0.048667 0.132048 0 127 127
0.053321 -0.202046 -0.189550 153 76 0
-0.101939 0.094163 0.017510 0 127 127
0.194241 0.123418 -0.066163 153 76 0
-0.175687 0.198586 -0.023151 153 76 0
0.100593 0.145593 -0.052411 153 76 0
-0.083587 0.064763 0.397443 0 127 127
0.172891 -0.802612 0.002775 76 0 153
-0.005214 0.639146 0.033444 0 255 0
0.103940 0.388985 -0.287341 153 76 0
-0.129066 -0.789266 -0.002564 153 76 0
-0.040065 0.519539 -0.060801 153 76 0
0.099297 0.018384 -0.149362 153 76 0
-0.208648 0.177244 -0.134212 153 76 0
-0.145201 -0.095037 0.013595 153 76 0
0.208342 -0.521803 -0.158120 153 76 0
-0.035299 0.640928 -0.159039 0 255 0
0.097924 0.056389 -0.085944 153 76 0
-0.021608 0.051359 0.592047 0 127 127
-0.100843 0.101456 0.909682 0 127 127
-0.037009 -0.790817 0.043916 153 76 0
0.028054 0.073366 0.878302 153 0 76
-0.119232 -0.788005 -0.276046 153 76 0
0.185476 -0.439471 -0.145275 153 76 0
0.115363 0.272345 -0.275243 153 76 0
0.097175 0.164723 0.556642 0 127 127
-0.088281 0.348394 -0.053174 153 76 0
-0.009582 -0.236207 -0.177550 153 76 0
-0.039397 0.047112 0.951844 153 0 76
-0.184211 -0.768086 -0.021855 76 0 153
-0.174762 0.619060 -0.025823 0 255 0
-0.095490 0.015736 -0.098596 153 76 0
-0.088112 0.101868 0.682008 0 127 127
-0.205888 -0.147984 -0.104819 153 76 0
-0.100155 -0.604913 -0.317243 153 76 0
-0.171732 -0.353889 -0.206622 153 76 0
0.070686 0.632103 -0.173540 0 255 0
-0.017061 0.673587 -0.212524 0 255 0
-0.050429 0.601241 -0.315796 0 255 0
-0.050039 0.230590 0.547096 0 127 127
0.153874 -0.034534 0.005773 153 76 0
0.164724 0.513939 -0.006546 0 255 0
-0.048617 -0.511907 0.041002 153 76 0
-0.034425 0.566574 0.412097 0 255 0
0.043795 -0.306200 -0.316518 153 76 0
0.111878 0.015736 -0.039131 153 76 0
-0.150618 0.351443 -0.112160 153 76 0
0.017476 0.221927 -0.344377 153 76 0
0.207678 0.268490 -0.115383 153 76 0
-0.174962 -0.474405 -0.244892 153 76 0
0.086295 0.197376 0.097102 0 127 127
0.009042 0.128776 -0.266360 153 76 0
0.157558 -0.604161 -0.232485 153 76 0
-0.100112 0.423555 0.047970 0 255 0
0.034107 0.229579 0.854004 0 127 127
0.090602 -0.126124 0.053700 153 76 0
-0.025578 0.585506 0.541354 0 255 0
-0.093156 -0.348949 -0.321975 153 76 0
0.121452 -0.251109 0.036214 153 76 0
0.009268 0.638471 -0.343330 0 255 0
-0.202201 0.067515 -0.084195 153 76 0
-0.065765 0.241845 0.323086 0 127 127
-0.125865 0.257295 0.031864 153 76 0
0.144825 -0.779583 -0.343690 76 0 153
0.191405 -0.572384 -0.222855 153 76 0
0.154587 -0.316759 0.003399 153 76 0
0.134910 0.132550 -0.294665 153 76 0
-0.050674 0.673587 -0.126710 0 255 0
0.008695 -0.428067 0.049443 153 76 0
-0.178302 -0.677613 -0.084807 153 76 0
0.046844 0.420711 -0.203383 0 255 0
-0.069612 -0.035911 0.937876 153 0 76
0.097956 0.079041 0.201688 0 127 127
0.001440 0.673587 -0.104033 0 255 0
-0.074016 -0.237748 -0.305868 153 76 0
0.081481 0.654925 0.026115 0 255 0
-0.198739 -0.699577 -0.190249 153 76 0
-0.143897 0.654925 -0.239660 0 255 0
0.162546 -0.367533 -0.264102 153 76 0
0.148884 -0.430871 -0.024034 153 76 0
0.113178 0.110875 0.165735 0 127 127
0.086208 -0.045888 0.881295 153 0 76
0.056381 0.043172 0.701722 0 127 127
0.066239 -0.810373 -0.182957 153 76 0
-0.069513 0.238518 0.217333 0 127 127
0.093921 -0.123295 -0.322368 153 76 0
-0.117269 0.141491 0.641179 0 127 127
-0.204435 -0.711318 -0.097790 153 76 0
-0.161796 0.015736 -0.222078 153 76 0
-0.034037 0.673587 -0.011696 0 255 0
-0.058382 0.028082 -0.312188 153 76 0
-0.145768 -0.429775 -0.021727 153 76 0
-0.058331 0.044756 0.338867 0 127 127
-0.001960 0.264403 0.640294 0 127 127
0.063435 0.058185 0.971415 0 127 127
0.116053 0.135123 0.106324 0 127 127
0.074211 0.171265 0.855183 0 127 127
0.053277 -0.824074 0.056436 153 76 0
0.090741 0.271621 -0.324448 153 76 0
-0.081089 -0.254896 0.057535 153 76 0
-0.180394 -0.802612 -0.273829 76 0 153
0.017699 0.525981 0.130616 0 255 0
-0.070672 -0.731580 0.036775 153 76 0
-0.007153 0.028004 1.000205 76 153 0
-0.180693 -0.725825 -0.169542 153 76 0
0.100165 0.502191 0.049053 0 255 0
-0.187577 0.155224 -0.045380 153 76 0
0.061412 0.482297 -0.121916 0 255 0
0.228716 -0.790334 -0.248726 76 0 153
0.114481 0.114018 0.439003 0 127 127
-0.175301 0.153529 -0.242219 153 76 0
-0.054700 -0.295371 -0.311560 153 76 0
-0.089921 0.081536 0.801431 0 127 127
-0.054391 -0.206724 -0.194640 153 76 0
-0.183916 -0.823332 -0.134155 153 76 0
-0.057723 -0.373481 0.038721 153 76 0
0.064220 -0.343104 0.037585 153 76 0
-0.149366 -0.505099 -0.280601 153 76 0
-0.025513 -0.768086 0.082276 76 0 153
-0.062251 0.654925 0.011491 0 255 0
-0.176415 0.654925 -0.198658 0 255 0
-0.070642 0.077507 0.579090 0 127 127
-0.172650 -0.318335 -0.069228 153 76 0
0.097414 -0.113826 -0.175155 153 76 0
-0.040284 0.047257 -0.186914 153 76 0
-0.182834 -0.720967 -0.234055 153 76 0
0.140643 0.461875 -0.008749 0 255 0
-0.022318 0.051215 0.508389 0 127 127
-0.091060 0.180067 0.339792 0 127 127
-0.122463 -0.451528 0.034518 153 76 0
0.059678 -0.164657 -0.199117 153 76 0
0.119384 0.019809 -0.278405 153 76 0
-0.086704 0.276462 -0.230828 153 76 0
0.120275 -0.572054 -0.304436 153 76 0
-0.184420 -0.561035 -0.038090 153 76 0
-0.014300 0.518539 -0.214766 0 255 0
0.013375 0.037755 -0.072793 153 76 0
0.149658 -0.299253 -0.282034 153 76 0
0.074037 0.081523 0.260441 0 127 127
0.011759 0.348394 -0.258609 153 76 0
-0.142291 0.114364 0.017223 153 76 0
0.013351 0.100307 0.048739 153 76 0
0.084658 0.386103 -0.163340 153 76 0
0.101616 -0.466161 -0.289351 153 76 0
-0.124440 0.081657 -0.300810 153 76 0
-0.083339 -0.349339 0.056048 153 76 0
0.200655 0.306778 -0.091761 153 76 0
-0.013105 0.078822 -0.105762 153 76 0
-0.185137 0.525770 -0.169430 0 255 0
0.053697 -0.004446 -0.070571 153 76 0
0.087215 -0.006180 -0.201788 153 76 0
-0.172707 0.673587 -0.150088 0 255 0
0.065150 -0.503669 -0.309150 153 76 0
-0.097051 0.125858 0.050349 0 127 127
0.088724 0.207173 0.027312 0 127 127
-0.059810 0.673587 -0.058311 0 255 0
0.170443 0.399293 -0.212454 153 76 0
0.028195 0.528399 0.364581 0 255 0
-0.009509 0.100287 -0.344793 153 76 0
-0.010563 0.482793 -0.060801 153 76 0
-0.137537 -0.768086 -0.303489 76 0 153
0.208666 -0.149350 -0.119198 153 76 0
-0.185849 -0.102216 -0.041389 153 76 0
-0.108459 0.185660 0.135038 0 127 127
-0.014032 0.057483 0.048338 153 76 0
-0.054858 -0.788248 -0.381000 76 0 153
-0.166686 -0.422121 -0.214477 153 76 0
-0.017457 0.519147 0.308790 0 255 0
0.209750 -0.587187 -0.148767 153 76 0
-0.153814 -0.271493 -0.032566 153 76 0
-0.126664 0.397249 -0.092408 153 76 0
0.182457 -0.145527 -0.030381 153 76 0
-0.042694 0.002342 0.997794 76 153 0
-0.073572 -0.040103 -0.095114 153 76 0
-0.039156 -0.365925 -0.339852 153 76 0
-0.098720 0.140507 0.083925 0 127 127
0.177739 0.015736 -0.136783 153 76 0
-0.010644 0.117459 -0.139959 153 76 0
-0.031958 0.565410 -0.212490 0 255 0
0.134832 0.568175 -0.295018 0 255 0
0.200643 -0.586998 -0.189135 153 76 0
-0.181172 -0.353924 -0.099481 153 76 0
-0.044218 -0.075161 -0.121120 153 76 0
-0.159877 -0.409169 -0.265891 153 76 0
-0.194333 -0.050869 -0.210380 153 76 0
-0.099283 -0.236207 -0.148253 153 76 0
0.205365 -0.697577 -0.090696 153 76 0
-0.168676 0.079373 -0.013706 153 76 0
0.063609 0.060869 0.772312 0 127 127
0.204008 -0.768086 -0.234210 76 0 153
-0.024483 -0.541584 -0.340984 153 76 0
0.150712 0.380426 0.010968 153 76 0
-0.038671 0.419898 -0.208870 0 255 0
0.086050 -0.359362 -0.326940 153 76 0
0.203654 -0.401986 -0.089083 153 76 0
0.020375 0.510800 -0.129008 0 255 0
-0.020830 0.566682 0.053260 0 255 0
0.107560 0.272345 -0.015662 153 76 0
-0.164451 -0.465634 -0.050293 153 76 0
-0.116871 -0.236207 -0.237023 153 76 0
0.176203 0.160748 -0.082366 153 76 0
-0.069777 0.003012 -0.204632 153 76 0
-0.067904 -0.469541 0.036920 153 76 0
0.165677 0.388985 -0.089064 153 76 0
0.135565 -0.352809 0.024468 153 76 0
0.017700 0.011660 -0.129844 153 76 0
0.129532 0.289529 -0.121213 153 76 0
-0.043155 0.600148 -0.131219 0 255 0
0.018631 0.192483 -0.318863 153 76 0
-0.035627 0.546266 0.126264 0 255 0
-0.192718 0.364141 -0.215681 153 76 0
-0.035668 -0.173701 -0.067553 153 76 0
0.171903 0.208015 -0.070795 153 76 0
0.181768 -0.288196 -0.236414 153 76 0
0.042747 0.037104 0.640033 0 127 127
0.050249 -0.041778 0.068237 153 76 0
-0.129990 -0.378711 -0.296891 153 76 0
-0.057270 0.353219 0.065504 153 76 0
-0.028820 0.384198 -0.227348 153 76 0
0.039870 0.349803 -0.221543 153 76 0
-0.112886 -0.016421 0.920903 76 153 0
-0.047765 -0.207777 -0.121062 153 76 0
-0.005214 0.015736 -0.217940 153 76 0
-0.010399 0.029110 0.840355 153 0 76
0.166119 -0.759719 -0.012015 153 76 0
0.101249 0.673587 -0.155029 0 255 0
-0.102947 0.089578 0.447452 0 127 127
0.113881 -0.703689 0.039611 153 76 0
-0.003516 -0.236207 -0.308631 153 76 0
0.203868 -0.084880 -0.095668 153 76 0
-0.016991 0.520160 0.347676 0 255 0
0.024963 0.243096 0.167360 0 127 127
-0.070410 -0.567996 -0.306786 153 76 0
-0.097929 0.251260 -0.318658 153 76 0
0.014739 0.673587 0.001908 0 255 0
0.097336 0.224625 -0.291208 153 76 0
-0.025618 0.654925 -0.053153 0 255 0
0.054558 -0.064780 -0.171740 153 76 0
-0.032950 0.102455 -0.223408 153 76 0
-0.136422 0.431155 0.020716 0 255 0
0.091292 0.110713 0.716998 0 127 127
0.088568 0.105355 -0.325940 153 76 0
0.209037 -0.684076 -0.141900 153 76 0
-0.052287 -0.132990 0.067452 153 76 0
0.004825 0.554071 -0.155997 0 255 0
-0.178572 0.494562 -0.198869 0 255 0
-0.024360 -0.587716 -0.320376 153 76 0
0.166451 -0.236207 -0.083144 153 76 0
-0.170065 0.526194 -0.017738 0 255 0
0.056245 -0.595799 -0.313275 153 76 0
0.003343 0.159150 0.074304 0 127 127
-0.179096 0.122343 -0.027744 153 76 0
0.009858 0.191438 0.049191 0 127 127
-0.043907 0.482282 -0.000121 153 76 0
0.117309 0.157538 0.493650 0 127 127
-0.135224 0.456101 -0.239504 153 76 0
-0.091807 0.110408 0.113496 0 127 127
-0.031208 -0.475161 -0.318483 153 76 0
-0.113746 -0.481565 0.008973 153 76 0
0.022659 0.041407 0.910095 153 0 76
0.089063 0.374928 0.052662 153 76 0
-0.147184 0.234563 0.012862 153 76 0
-0.126278 0.231159 -0.163792 153 76 0
0.002875 -0.642219 0.050755 153 76 0
0.198262 -0.605859 -0.069994 153 76 0
0.115450 -0.408658 -0.307799 153 76 0
0.007310 0.471642 -0.155296 0 255 0
-0.028439 0.241902 0.812422 0 127 127
-0.104768 -0.673191 0.043755 153 76 0
-0.051334 -0.429746 -0.312540 153 76 0
-0.181610 0.125822 -0.098786 153 76 0
0.205634 0.520656 -0.173964 0 255 0
-0.025442 0.133742 -0.008657 0 127 127
-0.092839 0.386166 -0.237989 153 76 0
0.176522 -0.690023 -0.194623 153 76 0
-0.099326 0.206255 0.269391 0 127 127
0.129025 -0.043070 -0.298632 153 76 0
0.200261 0.349759 -0.187613 153 76 0
0.060421 -0.770637 -0.220605 153 76 0
0.012126 -0.369880 0.072823 153 76 0
-0.108741 0.137095 -0.066469 153 76 0
-0.091129 -0.803111 -0.372919 76 0 153
-0.098111 0.148176 0.147518 0 127 127
-0.114262 0.197180 -0.074976 153 76 0
-0.041187 0.174577 0.918288 0 127 127
0.064352 0.416979 -0.257438 153 76 0
0.079648 0.060263 0.898163 153 0 76
-0.197082 0.544940 -0.076876 0 255 0
0.088796 -0.204393 -0.163532 153 76 0
0.028967 0.518378 -0.214766 0 255 0
-0.045158 0.254679 0.686582 0 127 127
-0.034454 0.164488 -0.341191 153 76 0
0.076967 -0.664645 0.059106 153 76 0
-0.058503 0.654925 -0.260278 0 255 0
-0.113906 -0.768086 0.053440 76 0 153
0.046214 0.635784 -0.317882 0 255 0
-0.020528 -0.133109 -0.344243 153 76 0
0.171767 -0.753288 -0.065355 153 76 0
0.206459 -0.634220 -0.167668 153 76 0
-0.090462 0.107297 0.537916 0 127 127
0.063189 0.015736 -0.307064 153 76 0
0.068735 0.084345 -0.142749 153 76 0
0.156677 0.140735 -0.034533 153 76 0
-0.180529 0.467633 -0.239847 0 255 0
-0.096088 0.654925 -0.009725 0 255 0
-0.148885 0.177679 -0.242226 153 76 0
0.189002 0.621233 -0.114652 0 255 0
0.184865 -0.573402 -0.116137 153 76 0
0.045734 0.015736 -0.030993 153 76 0
0.050501 0.039614 0.378809 0 127 127
0.058651 0.039521 -0.119710 153 76 0
0.173719 0.602707 -0.059824 0 255 0
0.042596 0.236285 0.491231 0 127 127
-0.043935 0.272345 0.030487 153 76 0
-0.027409 0.051308 0.269918 0 127 127
0.060937 -0.269390 -0.310681 153 76 0
0.065990 -0.513254 0.063798 153 76 0
-0.175404 0.243648 -0.075589 153 76 0
-0.134974 0.290553 -0.185536 153 76 0
0.036451 0.052025 -0.037922 153 76 0
-0.178460 -0.509110 -0.180066 153 76 0
0.069289 0.257315 0.036329 153 76 0
-0.083891 0.254343 0.029361 153 76 0
-0.105235 0.178767 -0.313743 153 76 0
-0.042821 0.235806 0.071603 0 127 127
-0.007275 0.029685 0.425358 0 127 127
-0.079482 -0.012666 0.876038 153 0 76
-0.184745 -0.386027 -0.122306 153 76 0
0.006797 -0.022310 0.789204 153 0 76
0.035585 0.583981 -0.093227 0 255 0
0.030731 0.640928 -0.175328 0 255 0
-0.093620 0.369543 -0.115801 153 76 0
0.199621 -0.474235 -0.193569 153 76 0
0.186107 -0.388322 -0.122422 153 76 0
0.198243 0.550460 -0.064570 0 255 0
-0.046164 -0.293362 0.067853 153 76 0
0.110302 0.187929 0.431147 0 127 127
-0.011089 -0.077564 -0.344763 153 76 0
0.155701 -0.463471 0.001329 153 76 0
0.052675 0.526452 -0.318340 0 255 0
-0.088922 0.044312 0.906080 153 0 76
0.207343 -0.768086 -0.071353 76 0 153
-0.186637 -0.628848 -0.228438 153 76 0
-0.105666 -0.530034 -0.313496 153 76 0
0.007216 -0.603232 0.073425 153 76 0
-0.152658 -0.824074 -0.277221 153 76 0
0.058491 0.043772 0.301612 0 127 127
0.016434 -0.538968 0.071901 153 76 0
-0.035900 0.385619 -0.340783 153 76 0
-0.112770 -0.267019 -0.280997 153 76 0
0.108040 0.054315 -0.203200 153 76 0
-0.073287 -0.167909 -0.098639 153 76 0
0.164550 0.654925 -0.072223 0 255 0
0.147280 0.176739 -0.246697 153 76 0
-0.022143 0.622613 -0.093227 0 255 0
-0.205173 0.344773 -0.151040 153 76 0
0.066817 0.153441 0.063518 0 127 127
-0.154709 -0.371469 -0.231882 153 76 0
-0.017279 -0.732144 0.071529 153 76 0
-0.181519 -0.800442 -0.101163 153 76 0
0.022468 -0.366040 -0.320754 153 76 0
0.088050 -0.468496 0.053928 153 76 0
0.091586 0.348538 -0.064940 153 76 0
0.153913 -0.471996 -0.276199 153 76 0
-0.144987 0.229182 -0.286295 153 76 0
0.025582 0.029289 0.841367 153 0 76
-0.049014 0.084099 -0.013889 153 76 0
-0.206351 -0.660064 -0.162793 153 76 0
-0.076332 -0.386678 -0.329297 153 76 0
0.100409 0.088053 -0.117702 153 76 0
0.019237 0.168353 -0.344295 153 76 0
0.159830 0.191985 0.000100 153 76 0
0.193767 -0.353911 -0.215635 153 76 0
0.218854 -0.802612 -0.154071 76 0 153
-0.207468 -0.266674 -0.149942 153 76 0
0.067976 -0.236207 -0.266614 153 76 0
-0.072187 0.416979 -0.015687 153 76 0
-0.050119 0.228775 -0.255282 153 76 0
0.032796 0.654925 -0.021514 0 255 0
0.028172 0.051208 0.274467 0 127 127
-0.183681 -0.716498 -0.125448 153 76 0
-0.177521 0.557841 -0.202445 0 255 0
0.213200 -0.805006 -0.020356 76 0 153
0.165124 -0.366664 -0.049025 153 76 0
0.060421 -0.733490 -0.207847 153 76 0
0.107529 0.603245 -0.312600 0 255 0
-0.191947 -0.369670 -0.056327 153 76 0
0.006912 -0.620395 -0.345068 153 76 0
-0.018530 -0.013308 -0.098816 153 76 0
0.023047 0.313273 -0.280885 153 76 0
0.084998 0.026209 -0.058720 153 76 0
0.049883 0.673587 -0.203139 0 255 0
-0.054798 0.038372 0.040493 153 76 0
-0.082687 -0.800048 0.106938 76 0 153
0.168635 0.464639 -0.254871 0 255 0
0.013410 -0.016717 0.907016 153 0 76
-0.018518 0.061839 0.812602 153 0 76
-0.194996 0.228062 -0.209728 153 76 0
0.109163 0.280615 -0.206358 153 76 0
-0.045955 0.519205 0.035410 0 255 0
0.116441 0.128939 0.233826 0 127 127
0.033010 0.540214 0.061190 0 255 0
0.025100 0.260508 0.736308 0 127 127
-0.042953 -0.625531 0.067289 153 76 0
-0.044789 0.308374 -0.257041 153 76 0
0.171005 -0.578844 -0.063482 153 76 0
0.170602 -0.824074 -0.320831 76 0 153
0.049568 -0.190258 -0.118938 153 76 0
-0.115560 -0.402039 0.038689 153 76 0
0.181210 -0.081342 -0.028702 153 76 0
0.144924 -0.331251 -0.248846 153 76 0
-0.025681 0.000199 0.789879 153 0 76
0.186012 0.157107 -0.145665 153 76 0
0.080794 0.093784 -0.032128 153 76 0
-0.096046 0.550857 -0.321676 0 255 0
0.145060 -0.158503 0.014974 153 76 0
-0.112121 0.180034 0.469290 0 127 127
-0.094919 0.128271 0.840092 0 127 127
-0.026313 0.572181 0.175021 0 255 0
0.202998 -0.456154 -0.085812 153 76 0
-0.129709 0.572501 0.002007 0 255 0
0.193987 0.225593 -0.216406 153 76 0
0.185209 0.105643 -0.125971 153 76 0
-0.129957 -0.301081 0.028216 153 76 0
-0.096822 0.211272 0.317072 0 127 127
-0.183560 0.057046 -0.135025 153 76 0
-0.065379 0.482297 -0.195857 0 255 0
0.213497 -0.824074 -0.264895 76 0 153
0.227947 -0.802612 -0.113510 76 0 153
0.129672 0.241302 -0.121944 153 76 0
-0.104986 0.614714 -0.293872 0 255 0
-0.091608 0.109944 0.481641 0 127 127
-0.128965 0.481722 -0.090512 153 76 0
-0.033064 0.095249 0.940162 0 127 127
-0.081970 0.180879 0.814154 0 127 127
0.094437 0.444028 0.050579 0 255 0
-0.161430 0.098294 -0.225806 153 76 0
0.135669 -0.555645 -0.263117 153 76 0
0.157446 0.388985 -0.171344 153 76 0
0.180423 0.331632 -0.027641 153 76 0
0.126129 -0.624890 0.032879 153 76 0
-0.022291 -0.442329 0.070897 153 76 0
-0.147522 -0.802612 0.032678 76 0 153
0.126865 -0.361675 -0.272150 153 76 0
0.049553 0.383306 -0.052049 153 76 0
-0.068709 0.015736 -0.242854 153 76 0
-0.200999 -0.771944 -0.289419 76 0 153
0.083017 0.231365 0.726212 0 127 127
0.018289 0.113695 0.968048 0 127 127
-0.036623 0.531314 -0.142732 0 255 0
0.105782 0.093034 0.276755 0 127 127
0.116052 0.348394 -0.153338 153 76 0
-0.048460 0.198889 0.849876 0 127 127
-0.093589 0.088053 -0.114611 153 76 0
0.000993 0.388985 -0.282729 153 76 0
0.173972 -0.300768 -0.080366 153 76 0
0.022569 -0.543357 -0.344210 153 76 0
0.050871 0.061153 0.526466 0 127 127
0.156692 0.390343 -0.243148 153 76 0
-0.172593 -0.361597 -0.018984 153 76 0
0.009057 0.560963 0.626615 0 255 0
0.177297 -0.627282 -0.190863 153 76 0
-0.034278 0.547984 0.543251 0 255 0
0.148872 0.270253 -0.282810 153 76 0
0.134427 0.267360 0.025483 153 76 0
-0.087518 0.461277 -0.277417 153 76 0
0.093467 -0.308856 0.023659 153 76 0
-0.009697 0.405512 -0.002169 153 76 0
-0.168126 -0.000921 -0.253409 153 76 0
0.165856 -0.271335 -0.053222 153 76 0
0.008048 -0.682504 -0.344961 153 76 0
-0.050491 0.444217 -0.285936 153 76 0
0.126384 -0.416176 -0.272266 153 76 0
-0.096062 0.124581 0.426975 0 127 127
-0.184807 -0.544936 -0.131430 153 76 0
0.177105 0.036869 -0.023172 153 76 0
0.187283 0.333268 -0.225904 153 76 0
-0.218872 -0.768086 -0.181208 76 0 153
0.015210 -0.048080 -0.077664 153 76 0
-0.204714 0.456298 -0.171909 0 255 0
-0.205048 -0.195555 -0.099504 153 76 0
0.081549 0.482297 -0.011760 153 76 0
0.066804 0.252015 -0.309660 153 76 0
0.050614 0.278586 -0.015398 153 76 0
0.121578 0.015736 0.002608 153 76 0
-0.166013 -0.824074 -0.036131 153 76 0
0.072793 0.216244 -0.026189 153 76 0
0.055970 0.246128 0.750018 0 127 127
-0.204814 0.380896 -0.101783 153 76 0
-0.115891 0.378374 -0.063458 153 76 0
0.101635 0.271522 -0.052394 153 76 0
0.208571 0.422172 -0.156571 0 255 0
-0.186904 -0.732059 -0.044874 153 76 0
0.041114 0.563616 0.033444 0 255 0
-0.104003 0.016068 0.939004 76 153 0
0.005567 0.245345 0.456454 0 127 127
0.162989 -0.425820 -0.223365 153 76 0
-0.094839 0.211824 0.725680 0 127 127
-0.078541 0.078491 0.845125 153 0 76
-0.169507 -0.302896 -0.252402 153 76 0
-0.028714 0.258702 0.206094 0 127 127
0.078183 -0.236207 0.013677 153 76 0
0.135719 -0.075387 0.024331 153 76 0
0.004907 0.010698 0.965381 153 0 76
0.001058 0.413510 0.048159 0 255 0
-0.061815 0.048483 0.786680 0 127 127
0.035108 0.408796 -0.315459 153 76 0
0.129520 0.015736 -0.169554 153 76 0
0.087991 0.067231 0.421656 0 127 127
-0.029022 0.052964 0.703316 0 127 127
-0.086382 0.583552 0.033723 0 255 0
-0.072284 -0.506460 -0.330431 153 76 0
0.083970 0.148639 -0.327597 153 76 0
-0.108147 0.102126 0.324964 0 127 127
-0.002047 -0.191634 -0.345265 153 76 0
-0.179685 0.407647 -0.032102 0 255 0
0.007740 0.029391 0.555151 0 127 127
-0.150165 0.673587 0.005418 0 255 0
-0.002184 0.219335 0.074286 0 127 127
0.143859 -0.824074 0.004435 153 76 0
-0.069454 -0.716509 -0.331211 153 76 0
0.002519 0.030177 -0.345297 153 76 0
0.098788 -0.013999 0.910254 153 0 76
0.178388 0.485303 -0.204567 0 255 0
0.030458 0.557985 0.093666 0 255 0
-0.124941 0.276335 -0.097989 153 76 0
0.034248 0.244790 0.796247 0 127 127
0.111347 -0.333109 -0.282192 153 76 0
-0.145159 0.514897 -0.257468 0 255 0
-0.186726 -0.669056 -0.228459 153 76 0
-0.016821 0.630071 -0.214766 0 255 0
-0.063095 0.087861 0.898262 153 0 76
0.081325 0.011636 -0.089443 153 76 0
-0.204201 -0.409648 -0.171775 153 76 0
0.161325 0.245643 -0.224102 153 76 0
0.066309 0.073050 0.332795 0 127 127
-0.150123 -0.667473 -0.279636 153 76 0
-0.148863 0.036903 -0.280998 153 76 0
-0.101799 -0.768086 -0.339432 76 0 153
0.076600 0.082210 0.611995 0 127 127
0.028797 -0.741828 -0.319784 153 76 0
0.129060 0.511996 -0.300355 0 255 0
0.104529 0.200530 0.561138 0 127 127
0.068099 -0.542058 -0.307784 153 76 0
0.027398 0.522976 0.241515 0 255 0
0.064670 0.072274 0.181247 0 127 127
0.098803 0.130725 0.765160 0 127 127
-0.019475 0.243126 0.398342 0 127 127
-0.077119 0.179182 0.877647 0 127 127
0.175258 -0.362920 -0.082776 153 76 0
0.039338 -0.442821 0.068595 153 76 0
0.095508 0.083805 0.818503 0 127 127
0.007260 0.588604 -0.325384 0 255 0
0.024357 -0.108727 0.071617 153 76 0
-0.198889 0.181465 -0.071920 153 76 0
0.129521 -0.696918 -0.000950 153 76 0
0.018617 -0.238776 -0.344468 153 76 0
0.079369 -0.236207 -0.046945 153 76 0
0.111816 0.148215 0.841844 0 127 127
0.194909 -0.421497 -0.211052 153 76 0
-0.090251 0.148706 -0.132680 153 76 0
0.065626 0.112356 -0.193210 153 76 0
0.072717 0.673587 -0.121289 0 255 0
0.031828 -0.236207 -0.304454 153 76 0
-0.100484 -0.715071 -0.289349 153 76 0
-0.136806 -0.764539 -0.259209 153 76 0
0.172083 -0.269614 -0.207920 153 76 0
0.203137 -0.302436 -0.181853 153 76 0
-0.055977 0.673587 -0.289759 0 255 0
0.205640 0.438978 -0.103428 0 255 0
-0.154908 -0.795044 -0.335696 76 0 153
-0.041289 0.438224 -0.150553 0 255 0
-0.022676 0.032928 0.633616 0 127 127
0.068854 0.214808 0.164172 0 127 127
-0.114241 0.046468 0.009549 153 76 0
0.097290 0.654925 -0.234892 0 255 0
0.048160 0.254887 0.126087 0 127 127
0.012977 -0.236207 -0.232269 153 76 0
-0.082869 0.207654 0.030091 0 127 127
0.060421 -0.812301 -0.248687 153 76 0
0.004908 0.581166 -0.109311 0 255 0
-0.174473 -0.563314 -0.074593 153 76 0
0.132531 -0.236207 -0.088462 153 76 0
-0.206821 -0.325794 -0.154880 153 76 0
-0.160974 -0.593347 -0.006887 153 76 0
0.053613 0.607509 0.064978 0 255 0
-0.028754 0.574882 0.343435 0 255 0
0.102329 -0.515498 -0.289502 153 76 0
-0.052012 -0.018454 -0.175274 153 76 0
0.180324 -0.791152 0.044210 76 0 153
0.109738 -0.252528 -0.282205 153 76 0
0.092133 0.218513 0.619192 0 127 127
-0.170832 0.030452 -0.016612 153 76 0
0.164362 0.518175 -0.266402 0 255 0
0.183457 0.591216 -0.233735 0 255 0
-0.063764 0.242546 0.146299 0 127 127
0.083491 0.062577 0.638402 0 127 127
-0.181055 0.073169 -0.172803 153 76 0
0.134822 -0.236207 -0.021892 153 76 0
0.062520 0.055176 -0.167177 153 76 0
0.101474 0.084328 0.376766 0 127 127
0.118142 0.411931 -0.199759 153 76 0
0.066130 0.057221 0.928970 153 0 76
-0.135813 -0.349339 0.022712 153 76 0
-0.033771 0.053435 -0.058822 153 76 0
0.053518 0.119774 0.952176 0 127 127
0.192703 0.091429 -0.218813 153 76 0
0.094751 0.041208 0.051950 153 76 0
0.065740 -0.029109 -0.091689 153 76 0
-0.170912 -0.220853 -0.016719 153 76 0
-0.072916 -0.117837 -0.087108 153 76 0
-0.149164 0.635776 -0.280895 0 255 0
-0.081273 0.391142 -0.083660 153 76 0
-0.099736 -0.802612 -0.330781 153 76 0
-0.021329 0.639424 -0.322811 0 255 0
-0.012918 -0.236207 -0.253782 153 76 0
0.070686 0.633227 -0.080538 0 255 0
0.063960 0.364159 -0.333266 153 76 0
0.121559 0.192154 0.004074 153 76 0
0.205064 0.209689 -0.162523 153 76 0
0.053191 -0.084681 0.067671 153 76 0
-0.083818 0.196804 0.498834 0 127 127
-0.095551 0.212495 0.115301 0 127 127
-0.007151 0.470045 -0.185491 0 255 0
0.007609 -0.786369 0.049844 153 76 0
0.152469 -0.505899 -0.278231 153 76 0
-0.073394 0.521052 -0.310495 0 255 0
-0.140729 -0.685338 -0.016497 153 76 0
0.040735 0.118826 0.043134 0 127 127
-0.003708 -0.293146 -0.321769 153 76 0
-0.148079 -0.236207 -0.076850 153 76 0
0.034465 0.053039 0.105779 0 127 127
-0.076091 0.393601 -0.177621 153 76 0
-0.086629 0.066436 0.699055 0 127 127
-0.162080 0.094409 -0.044818 153 76 0
-0.205017 0.271751 -0.102296 153 76 0
0.064383 -0.327545 -0.333095 153 76 0
0.104869 0.388985 -0.004640 153 76 0
-0.079965 0.157500 0.058320 0 127 127
-0.079897 0.187107 -0.033175 153 76 0
-0.120861 -0.626472 0.035360 153 76 0
-0.113666 0.329732 -0.212307 153 76 0
0.020262 0.121070 -0.318888 153 76 0
-0.166642 0.589694 -0.047848 0 255 0
0.056935 0.217874 0.774303 0 127 127
-0.024488 0.148706 -0.150940 153 76 0
0.078587 0.272345 0.001596 153 76 0
-0.065425 0.242257 0.356399 0 127 127
-0.119418 -0.824074 -0.279449 153 76 0
0.029710 0.543276 -0.060801 0 255 0
-0.198269 -0.183721 -0.195216 153 76 0
-0.015566 -0.022016 0.957571 153 0 76
0.024124 0.260347 -0.317878 153 76 0
-0.068119 0.053539 0.969093 0 127 127
0.190761 0.638548 -0.220459 0 255 0
-0.120023 0.673587 -0.256610 0 255 0
0.044435 -0.392149 0.041790 153 76 0
-0.102452 -0.262246 0.015983 153 76 0
-0.098348 0.082290 0.733660 0 127 127
-0.172432 -0.506112 -0.069168 153 76 0
-0.055668 -0.037996 0.860211 153 0 76
-0.123694 0.673587 -0.130625 0 255 0
0.162518 -0.391587 -0.005920 153 76 0
-0.063243 0.015795 0.828097 153 0 76
-0.178752 -0.571641 -0.239662 153 76 0
-0.090565 -0.809726 0.057798 153 76 0
-0.107960 0.482801 -0.292315 0 255 0
-0.181742 -0.121177 -0.233745 153 76 0
0.031273 0.000611 0.816798 153 0 76
-0.175483 -0.434142 -0.244144 153 76 0
0.091862 0.112685 0.314353 0 127 127
-0.189220 -0.201470 -0.049175 153 76 0
0.077529 0.419675 -0.103306 153 76 0
0.163264 -0.025604 -0.262762 153 76 0
-0.155899 -0.033137 0.001934 153 76 0
-0.085869 0.356672 -0.261382 153 76 0
0.039969 0.098067 -0.123971 153 76 0
-0.094544 -0.303251 0.021854 153 76 0
0.106823 -0.666535 0.043435 153 76 0
0.127161 0.654925 -0.025530 0 255 0
-0.084575 0.034363 0.055904 153 76 0
-0.112887 0.432225 -0.273646 153 76 0
0.014974 0.364393 0.015626 153 76 0
-0.195697 0.590305 -0.205178 0 255 0
0.100456 0.205877 0.677283 0 127 127
0.125037 0.123694 0.002357 153 76 0
0.017511 0.261345 0.222332 0 127 127
-0.141940 0.638225 -0.009065 0 255 0
-0.154361 0.383743 0.005578 153 76 0
-0.146426 0.388985 -0.231269 153 76 0
0.021707 0.051077 0.674514 0 127 127
-0.069283 0.617659 -0.119912 0 255 0
0.020029 0.541872 -0.324374 0 255 0
-0.099326 0.673587 -0.103400 0 255 0
-0.064800 0.074039 0.156564 0 127 127
-0.185164 -0.605274 -0.139316 153 76 0
0.077911 0.086620 0.085654 0 127 127
-0.142507 -0.633689 -0.250779 153 76 0
-0.087282 0.644140 -0.303600 0 255 0
-0.201881 0.132369 -0.174408 153 76 0
-0.057609 0.043960 0.215913 0 127 127
-0.077358 0.586461 -0.328311 0 255 0
-0.197477 -0.479619 -0.196231 153 76 0
0.010018 0.593626 0.508361 0 255 0
0.191686 -0.501920 -0.053479 153 76 0
-0.220560 -0.768086 -0.143298 76 0 153
-0.018451 -0.714724 -0.320881 153 76 0
0.011611 -0.160131 -0.084665 153 76 0
